ply
format ascii 1.0
comment VCGLIB generated
element vertex 829
property float x
property float y
property float z
property float nx
property float ny
property float nz
property int flags
property uchar red
property uchar green
property uchar blue
property uchar alpha
element face 0
property list uchar int vertex_indices
property int flags
end_header
0.06733817 0.1906633 0.1853649 0 0 0 16 128 128 128 255 
0.06536814 0.1908664 0.1854168 0 0 0 16 128 128 128 255 
0.06339884 0.1910695 0.1854686 0 0 0 16 128 128 128 255 
0.06143028 0.1912725 0.1855204 0 0 0 16 128 128 128 255 
0.05946246 0.1914753 0.1855722 0 0 0 16 128 128 128 255 
0.05749537 0.1916782 0.185624 0 0 0 16 128 128 128 255 
0.05552903 0.191881 0.1856757 0 0 0 16 128 128 128 255 
0.05356343 0.1920836 0.1857274 0 0 0 16 128 128 128 255 
0.05159856 0.1922861 0.1857791 0 0 0 16 128 128 128 255 
0.04963443 0.1924888 0.1858308 0 0 0 16 128 128 128 255 
0.04767103 0.1926912 0.1858825 0 0 0 16 128 128 128 255 
0.04570837 0.1928937 0.1859342 0 0 0 16 128 128 128 255 
0.04374645 0.193096 0.1859858 0 0 0 16 128 128 128 255 
0.04178526 0.1932983 0.1860375 0 0 0 16 128 128 128 255 
0.03982481 0.1935004 0.1860891 0 0 0 16 128 128 128 255 
0.03786509 0.1937024 0.1861406 0 0 0 16 128 128 128 255 
0.03590612 0.1939044 0.1861922 0 0 0 16 128 128 128 255 
0.03394787 0.1941063 0.1862437 0 0 0 16 128 128 128 255 
0.03199035 0.1943082 0.1862952 0 0 0 16 128 128 128 255 
0.03003357 0.19451 0.1863467 0 0 0 16 128 128 128 255 
0.02807751 0.1947118 0.1863983 0 0 0 16 128 128 128 255 
0.02612219 0.1949135 0.1864497 0 0 0 16 128 128 128 255 
0.0241676 0.1951151 0.1865012 0 0 0 16 128 128 128 255 
0.02221373 0.1953169 0.1865527 0 0 0 16 128 128 128 255 
0.02026061 0.1955184 0.1866041 0 0 0 16 128 128 128 255 
0.01830822 0.1957198 0.1866555 0 0 0 16 128 128 128 255 
0.01635656 0.1959211 0.1867069 0 0 0 16 128 128 128 255 
0.01440564 0.1961221 0.1867582 0 0 0 16 128 128 128 255 
0.01245544 0.1963232 0.1868095 0 0 0 16 128 128 128 255 
0.01050596 0.1965244 0.1868609 0 0 0 16 128 128 128 255 
0.008557219 0.1967252 0.1869122 0 0 0 16 128 128 128 255 
0.006609204 0.1969262 0.1869634 0 0 0 16 128 128 128 255 
0.00466191 0.1971272 0.1870147 0 0 0 16 128 128 128 255 
0.002715358 0.1973278 0.187066 0 0 0 16 128 128 128 255 
0.0007695248 0.1975285 0.1871172 0 0 0 16 128 128 128 255 
-0.001175585 0.1977293 0.1871684 0 0 0 16 128 128 128 255 
-0.003119962 0.1979297 0.1872196 0 0 0 16 128 128 128 255 
-0.005063612 0.19813 0.1872707 0 0 0 16 128 128 128 255 
-0.007006513 0.1983296 0.1873217 0 0 0 16 128 128 128 255 
-0.00894557 0.1984301 0.1873473 0 0 0 16 128 128 128 255 
-0.01087769 0.1983096 0.1873165 0 0 0 16 128 128 128 255 
-0.01280404 0.1979665 0.1872289 0 0 0 16 128 128 128 255 
-0.01472553 0.1973899 0.1870817 0 0 0 16 128 128 128 255 
-0.01664165 0.1965071 0.1868564 0 0 0 16 128 128 128 255 
-0.01855373 0.1953032 0.186549 0 0 0 16 128 128 128 255 
-0.02046218 0.193714 0.1861433 0 0 0 16 128 128 128 255 
-0.02236458 0.1915015 0.1855784 0 0 0 16 128 128 128 255 
-0.02425743 0.1882627 0.1847516 0 0 0 16 128 128 128 255 
-0.02609313 0.1805223 0.1827755 0 0 0 16 128 128 128 255 
-0.02788951 0.1677956 0.1795265 0 0 0 16 128 128 128 255 
-0.02980457 0.1612971 0.1778675 0 0 0 16 128 128 128 255 
-0.03156413 0.1366812 0.1715833 0 0 0 16 128 128 128 255 
-0.03342031 0.1130325 0.165546 0 0 0 16 128 128 128 255 
-0.03510446 0.04833268 0.1490288 0 0 0 16 128 128 128 255 
-0.03729585 0.04494377 0.1481636 0 0 0 16 128 128 128 255 
-0.03950162 0.04236486 0.1475052 0 0 0 16 128 128 128 255 
-0.04171692 0.04004595 0.1469132 0 0 0 16 128 128 128 255 
-0.04394068 0.03763594 0.1462979 0 0 0 16 128 128 128 255 
-0.04617399 0.03491314 0.1456028 0 0 0 16 128 128 128 255 
-0.04841904 0.03177143 0.1448007 0 0 0 16 128 128 128 255 
-0.05067869 0.02811642 0.1438677 0 0 0 16 128 128 128 255 
-0.05295851 0.02360581 0.1427161 0 0 0 16 128 128 128 255 
-0.0552697 0.0175818 0.1411783 0 0 0 16 128 128 128 255 
-0.05767936 0.005039887 0.1379764 0 0 0 16 128 128 128 255 
0.08960298 0.1839437 0.1816877 0 0 0 16 128 128 128 255 
0.08727775 0.1869737 0.1824667 0 0 0 16 128 128 128 255 
0.08517062 0.18825 0.1827948 0 0 0 16 128 128 128 255 
0.08315494 0.1887795 0.182931 0 0 0 16 128 128 128 255 
0.08117405 0.1890223 0.1829934 0 0 0 16 128 128 128 255 
0.07919841 0.1892262 0.1830458 0 0 0 16 128 128 128 255 
0.07722351 0.1894299 0.1830981 0 0 0 16 128 128 128 255 
0.07524936 0.1896335 0.1831505 0 0 0 16 128 128 128 255 
0.07327595 0.189837 0.1832028 0 0 0 16 128 128 128 255 
0.07130329 0.1900405 0.1832551 0 0 0 16 128 128 128 255 
0.06933137 0.1902439 0.1833073 0 0 0 16 128 128 128 255 
0.06736019 0.1904471 0.1833596 0 0 0 16 128 128 128 255 
0.06538974 0.1906505 0.1834119 0 0 0 16 128 128 128 255 
0.06342005 0.1908536 0.1834641 0 0 0 16 128 128 128 255 
0.06145107 0.1910568 0.1835164 0 0 0 16 128 128 128 255 
0.05948285 0.1912598 0.1835685 0 0 0 16 128 128 128 255 
0.05751536 0.1914628 0.1836207 0 0 0 16 128 128 128 255 
0.05554863 0.1916657 0.1836728 0 0 0 16 128 128 128 255 
0.05358261 0.1918685 0.183725 0 0 0 16 128 128 128 255 
0.05161736 0.1920711 0.183777 0 0 0 16 128 128 128 255 
0.04965282 0.1922738 0.1838292 0 0 0 16 128 128 128 255 
0.04768904 0.1924764 0.1838812 0 0 0 16 128 128 128 255 
0.04572595 0.1926792 0.1839334 0 0 0 16 128 128 128 255 
0.04376363 0.1928818 0.1839854 0 0 0 16 128 128 128 255 
0.04180204 0.1930842 0.1840374 0 0 0 16 128 128 128 255 
0.03984119 0.1932864 0.1840895 0 0 0 16 128 128 128 255 
0.03788108 0.1934886 0.1841414 0 0 0 16 128 128 128 255 
0.0359217 0.1936909 0.1841934 0 0 0 16 128 128 128 255 
0.03396305 0.1938929 0.1842453 0 0 0 16 128 128 128 255 
0.03200517 0.1940946 0.1842972 0 0 0 16 128 128 128 255 
0.03004801 0.1942963 0.184349 0 0 0 16 128 128 128 255 
0.02809157 0.1944981 0.1844009 0 0 0 16 128 128 128 255 
0.02613585 0.1947 0.1844528 0 0 0 16 128 128 128 255 
0.02418086 0.1949017 0.1845047 0 0 0 16 128 128 128 255 
0.02222662 0.1951033 0.1845565 0 0 0 16 128 128 128 255 
0.02027312 0.1953047 0.1846083 0 0 0 16 128 128 128 255 
0.01832033 0.1955063 0.18466 0 0 0 16 128 128 128 255 
0.01636828 0.1957076 0.1847118 0 0 0 16 128 128 128 255 
0.01441696 0.1959089 0.1847635 0 0 0 16 128 128 128 255 
0.01246637 0.1961102 0.1848153 0 0 0 16 128 128 128 255 
0.01051651 0.1963113 0.1848669 0 0 0 16 128 128 128 255 
0.008567379 0.1965123 0.1849186 0 0 0 16 128 128 128 255 
0.006618972 0.1967134 0.1849703 0 0 0 16 128 128 128 255 
0.004671298 0.1969143 0.185022 0 0 0 16 128 128 128 255 
0.002724345 0.1971154 0.1850736 0 0 0 16 128 128 128 255 
0.0007781276 0.1973161 0.1851252 0 0 0 16 128 128 128 255 
-0.001167351 0.1975165 0.1851767 0 0 0 16 128 128 128 255 
-0.003112122 0.1977171 0.1852283 0 0 0 16 128 128 128 255 
-0.005056134 0.1979169 0.1852797 0 0 0 16 128 128 128 255 
-0.006999456 0.1981176 0.1853313 0 0 0 16 128 128 128 255 
-0.008937893 0.1981862 0.1853489 0 0 0 16 128 128 128 255 
-0.01086986 0.1980457 0.1853127 0 0 0 16 128 128 128 255 
-0.01279643 0.1976936 0.1852222 0 0 0 16 128 128 128 255 
-0.01471758 0.1970853 0.1850659 0 0 0 16 128 128 128 255 
-0.01663377 0.1961825 0.1848337 0 0 0 16 128 128 128 255 
-0.0185461 0.1949637 0.1845204 0 0 0 16 128 128 128 255 
-0.02045419 0.1933273 0.1840996 0 0 0 16 128 128 128 255 
-0.02235608 0.1910507 0.1835143 0 0 0 16 128 128 128 255 
-0.02424631 0.1876117 0.1826302 0 0 0 16 128 128 128 255 
-0.0260678 0.1788648 0.1803814 0 0 0 16 128 128 128 255 
-0.02785338 0.1651156 0.1768465 0 0 0 16 128 128 128 255 
-0.02979523 0.1604959 0.1756588 0 0 0 16 128 128 128 255 
-0.03147951 0.1281136 0.1673335 0 0 0 16 128 128 128 255 
-0.03321452 0.08754255 0.1569029 0 0 0 16 128 128 128 255 
-0.03509387 0.04664076 0.1463872 0 0 0 16 128 128 128 255 
-0.03729292 0.04428575 0.1457818 0 0 0 16 128 128 128 255 
-0.03950121 0.04220384 0.1452465 0 0 0 16 128 128 128 255 
-0.04171694 0.04005374 0.1446937 0 0 0 16 128 128 128 255 
-0.04394068 0.03764773 0.1440752 0 0 0 16 128 128 128 255 
-0.04617396 0.03492992 0.1433764 0 0 0 16 128 128 128 255 
-0.04841895 0.03179391 0.1425701 0 0 0 16 128 128 128 255 
-0.05067857 0.02813721 0.14163 0 0 0 16 128 128 128 255 
-0.0529585 0.0236095 0.1404659 0 0 0 16 128 128 128 255 
-0.0552697 0.01758339 0.1389166 0 0 0 16 128 128 128 255 
-0.05767818 0.005140971 0.1357178 0 0 0 16 128 128 128 255 
0.08735854 0.1862999 0.1803359 0 0 0 16 128 128 128 255 
0.08522167 0.1878176 0.1807288 0 0 0 16 128 128 128 255 
0.08318686 0.1885051 0.1809068 0 0 0 16 128 128 128 255 
0.08119879 0.1888061 0.1809847 0 0 0 16 128 128 128 255 
0.07922275 0.18901 0.1810375 0 0 0 16 128 128 128 255 
0.07724745 0.1892139 0.1810903 0 0 0 16 128 128 128 255 
0.0752729 0.1894176 0.181143 0 0 0 16 128 128 128 255 
0.0732991 0.1896213 0.1811957 0 0 0 16 128 128 128 255 
0.07132602 0.1898248 0.1812484 0 0 0 16 128 128 128 255 
0.06935368 0.1900285 0.1813012 0 0 0 16 128 128 128 255 
0.06738209 0.1902321 0.1813538 0 0 0 16 128 128 128 255 
0.06541122 0.1904357 0.1814065 0 0 0 16 128 128 128 255 
0.06344113 0.1906389 0.1814591 0 0 0 16 128 128 128 255 
0.06147178 0.1908421 0.1815117 0 0 0 16 128 128 128 255 
0.05950314 0.1910453 0.1815643 0 0 0 16 128 128 128 255 
0.05753527 0.1912483 0.1816169 0 0 0 16 128 128 128 255 
0.05556813 0.1914513 0.1816694 0 0 0 16 128 128 128 255 
0.05360172 0.1916542 0.181722 0 0 0 16 128 128 128 255 
0.05163606 0.1918571 0.1817745 0 0 0 16 128 128 128 255 
0.04967116 0.1920596 0.1818269 0 0 0 16 128 128 128 255 
0.047707 0.192262 0.1818793 0 0 0 16 128 128 128 255 
0.04574357 0.1924643 0.1819316 0 0 0 16 128 128 128 255 
0.04378085 0.1926669 0.1819841 0 0 0 16 128 128 128 255 
0.04181886 0.1928695 0.1820365 0 0 0 16 128 128 128 255 
0.03985761 0.193072 0.182089 0 0 0 16 128 128 128 255 
0.03789711 0.1932743 0.1821413 0 0 0 16 128 128 128 255 
0.03593734 0.1934764 0.1821936 0 0 0 16 128 128 128 255 
0.03397829 0.1936788 0.182246 0 0 0 16 128 128 128 255 
0.03202001 0.1938806 0.1822982 0 0 0 16 128 128 128 255 
0.03006244 0.1940827 0.1823505 0 0 0 16 128 128 128 255 
0.02810561 0.1942846 0.1824028 0 0 0 16 128 128 128 255 
0.02614951 0.1944863 0.182455 0 0 0 16 128 128 128 255 
0.02419414 0.1946881 0.1825073 0 0 0 16 128 128 128 255 
0.0222395 0.1948899 0.1825595 0 0 0 16 128 128 128 255 
0.0202856 0.1950915 0.1826117 0 0 0 16 128 128 128 255 
0.01833244 0.1952929 0.1826638 0 0 0 16 128 128 128 255 
0.01638 0.1954942 0.1827159 0 0 0 16 128 128 128 255 
0.0144283 0.1956955 0.182768 0 0 0 16 128 128 128 255 
0.0124773 0.1958971 0.1828202 0 0 0 16 128 128 128 255 
0.01052706 0.1960982 0.1828723 0 0 0 16 128 128 128 255 
0.008577532 0.1962996 0.1829244 0 0 0 16 128 128 128 255 
0.006628752 0.1965004 0.1829764 0 0 0 16 128 128 128 255 
0.00468068 0.1967016 0.1830284 0 0 0 16 128 128 128 255 
0.002733349 0.1969025 0.1830804 0 0 0 16 128 128 128 255 
0.0007867493 0.1971031 0.1831324 0 0 0 16 128 128 128 255 
-0.001159133 0.1973039 0.1831844 0 0 0 16 128 128 128 255 
-0.003104254 0.1975038 0.1832361 0 0 0 16 128 128 128 255 
-0.005048697 0.1977049 0.1832882 0 0 0 16 128 128 128 255 
-0.006991957 0.1978922 0.1833366 0 0 0 16 128 128 128 255 
-0.008930011 0.1979359 0.183348 0 0 0 16 128 128 128 255 
-0.01086175 0.1977722 0.1833055 0 0 0 16 128 128 128 255 
-0.01278804 0.1973926 0.1832073 0 0 0 16 128 128 128 255 
-0.01470849 0.1967364 0.1830374 0 0 0 16 128 128 128 255 
-0.01662458 0.1958039 0.1827959 0 0 0 16 128 128 128 255 
-0.01853687 0.1945528 0.182472 0 0 0 16 128 128 128 255 
-0.02044431 0.1928496 0.1820311 0 0 0 16 128 128 128 255 
-0.02234549 0.1904896 0.18142 0 0 0 16 128 128 128 255 
-0.02423102 0.1867163 0.1804431 0 0 0 16 128 128 128 255 
-0.02603025 0.1764085 0.1777744 0 0 0 16 128 128 128 255 
-0.02780225 0.1613231 0.1738688 0 0 0 16 128 128 128 255 
-0.02976382 0.1578066 0.1729584 0 0 0 16 128 128 128 255 
-0.03132849 0.1128239 0.1613124 0 0 0 16 128 128 128 255 
-0.03289618 0.04811095 0.1445583 0 0 0 16 128 128 128 255 
-0.03508977 0.04598594 0.1440081 0 0 0 16 128 128 128 255 
-0.0372923 0.04414324 0.1435311 0 0 0 16 128 128 128 255 
-0.03950125 0.04221393 0.1430316 0 0 0 16 128 128 128 255 
-0.04171697 0.04007402 0.1424775 0 0 0 16 128 128 128 255 
-0.04394067 0.03767091 0.1418554 0 0 0 16 128 128 128 255 
-0.04617391 0.03495271 0.1411516 0 0 0 16 128 128 128 255 
-0.04841886 0.0318165 0.1403396 0 0 0 16 128 128 128 255 
-0.05067852 0.02814669 0.1393895 0 0 0 16 128 128 128 255 
-0.05295848 0.02361318 0.1382158 0 0 0 16 128 128 128 255 
-0.05526969 0.01758497 0.1366551 0 0 0 16 128 128 128 255 
-0.05767775 0.005178255 0.133443 0 0 0 16 128 128 128 255 
0.08746219 0.1854356 0.178153 0 0 0 16 128 128 128 255 
0.08528201 0.1873067 0.1786408 0 0 0 16 128 128 128 255 
0.08321954 0.1882241 0.1788799 0 0 0 16 128 128 128 255 
0.08122344 0.1885908 0.1789755 0 0 0 16 128 128 128 255 
0.079247 0.1887947 0.1790287 0 0 0 16 128 128 128 255 
0.07727131 0.1889987 0.1790819 0 0 0 16 128 128 128 255 
0.07529635 0.1892026 0.179135 0 0 0 16 128 128 128 255 
0.07332215 0.1894063 0.1791881 0 0 0 16 128 128 128 255 
0.07134867 0.1896099 0.1792412 0 0 0 16 128 128 128 255 
0.06937595 0.1898137 0.1792943 0 0 0 16 128 128 128 255 
0.067404 0.1900169 0.1793472 0 0 0 16 128 128 128 255 
0.06543279 0.1902201 0.1794002 0 0 0 16 128 128 128 255 
0.06346233 0.1904231 0.1794531 0 0 0 16 128 128 128 255 
0.06149259 0.1906262 0.1795061 0 0 0 16 128 128 128 255 
0.05952356 0.1908296 0.1795591 0 0 0 16 128 128 128 255 
0.05755527 0.1910328 0.179612 0 0 0 16 128 128 128 255 
0.05558773 0.1912359 0.179665 0 0 0 16 128 128 128 255 
0.05362093 0.1914389 0.1797179 0 0 0 16 128 128 128 255 
0.05165487 0.1916419 0.1797708 0 0 0 16 128 128 128 255 
0.04968955 0.1918447 0.1798237 0 0 0 16 128 128 128 255 
0.04772497 0.1920476 0.1798765 0 0 0 16 128 128 128 255 
0.04576113 0.1922502 0.1799294 0 0 0 16 128 128 128 255 
0.04379804 0.1924525 0.1799821 0 0 0 16 128 128 128 255 
0.04183567 0.192655 0.1800349 0 0 0 16 128 128 128 255 
0.03987403 0.1928577 0.1800877 0 0 0 16 128 128 128 255 
0.03791313 0.1930601 0.1801405 0 0 0 16 128 128 128 255 
0.03595297 0.1932623 0.1801932 0 0 0 16 128 128 128 255 
0.03399354 0.1934645 0.1802459 0 0 0 16 128 128 128 255 
0.03203485 0.1936668 0.1802986 0 0 0 16 128 128 128 255 
0.03007689 0.1938687 0.1803512 0 0 0 16 128 128 128 255 
0.02811967 0.1940708 0.1804039 0 0 0 16 128 128 128 255 
0.02616318 0.1942726 0.1804565 0 0 0 16 128 128 128 255 
0.02420744 0.1944741 0.180509 0 0 0 16 128 128 128 255 
0.02225241 0.194676 0.1805617 0 0 0 16 128 128 128 255 
0.02029811 0.1948778 0.1806143 0 0 0 16 128 128 128 255 
0.01834453 0.1950796 0.1806668 0 0 0 16 128 128 128 255 
0.01639171 0.1952811 0.1807193 0 0 0 16 128 128 128 255 
0.01443961 0.1954826 0.1807719 0 0 0 16 128 128 128 255 
0.01248825 0.1956839 0.1808244 0 0 0 16 128 128 128 255 
0.01053761 0.1958851 0.1808768 0 0 0 16 128 128 128 255 
0.008587698 0.1960864 0.1809293 0 0 0 16 128 128 128 255 
0.006638525 0.1962875 0.1809817 0 0 0 16 128 128 128 255 
0.004690069 0.1964887 0.1810341 0 0 0 16 128 128 128 255 
0.002742362 0.1966894 0.1810864 0 0 0 16 128 128 128 255 
0.0007953591 0.1968904 0.1811389 0 0 0 16 128 128 128 255 
-0.001150876 0.1970905 0.181191 0 0 0 16 128 128 128 255 
-0.003096433 0.1972918 0.1812434 0 0 0 16 128 128 128 255 
-0.00504125 0.1974926 0.1812958 0 0 0 16 128 128 128 255 
-0.006984264 0.197661 0.1813397 0 0 0 16 128 128 128 255 
-0.008921713 0.1976723 0.1813426 0 0 0 16 128 128 128 255 
-0.01085312 0.1974815 0.1812929 0 0 0 16 128 128 128 255 
-0.01277809 0.1970355 0.1811766 0 0 0 16 128 128 128 255 
-0.0146983 0.1963461 0.1809969 0 0 0 16 128 128 128 255 
-0.01661421 0.1953769 0.1807442 0 0 0 16 128 128 128 255 
-0.01852613 0.1940754 0.1804048 0 0 0 16 128 128 128 255 
-0.02043226 0.1922671 0.1799334 0 0 0 16 128 128 128 255 
-0.02233179 0.189764 0.1792808 0 0 0 16 128 128 128 255 
-0.02421136 0.1855658 0.1781863 0 0 0 16 128 128 128 255 
-0.02597964 0.1730982 0.174936 0 0 0 16 128 128 128 255 
-0.02777238 0.1591075 0.1712886 0 0 0 16 128 128 128 255 
-0.02945689 0.1315318 0.1640995 0 0 0 16 128 128 128 255 
-0.03070183 0.04938274 0.142683 0 0 0 16 128 128 128 255 
-0.03289161 0.04754313 0.1422034 0 0 0 16 128 128 128 255 
-0.03508922 0.04589653 0.1417741 0 0 0 16 128 128 128 255 
-0.03729238 0.04415772 0.1413207 0 0 0 16 128 128 128 255 
-0.03950132 0.04223681 0.14082 0 0 0 16 128 128 128 255 
-0.04171702 0.04010521 0.1402642 0 0 0 16 128 128 128 255 
-0.04394066 0.0377 0.1396372 0 0 0 16 128 128 128 255 
-0.04617386 0.03497769 0.1389275 0 0 0 16 128 128 128 255 
-0.04841877 0.03183908 0.1381092 0 0 0 16 128 128 128 255 
-0.05067848 0.02815608 0.137149 0 0 0 16 128 128 128 255 
-0.05295846 0.02361697 0.1359656 0 0 0 16 128 128 128 255 
-0.05526969 0.01758666 0.1343935 0 0 0 16 128 128 128 255 
-0.05767668 0.005271039 0.1311828 0 0 0 16 128 128 128 255 
0.08760993 0.1842037 0.1758705 0 0 0 16 128 128 128 255 
0.08535685 0.1866731 0.1765187 0 0 0 16 128 128 128 255 
0.0832671 0.1878151 0.1768185 0 0 0 16 128 128 128 255 
0.081254 0.1883239 0.176952 0 0 0 16 128 128 128 255 
0.07927144 0.1885779 0.1770187 0 0 0 16 128 128 128 255 
0.07729535 0.1887818 0.1770722 0 0 0 16 128 128 128 255 
0.07531998 0.1889859 0.1771258 0 0 0 16 128 128 128 255 
0.07334536 0.1891898 0.1771793 0 0 0 16 128 128 128 255 
0.0713715 0.1893936 0.1772328 0 0 0 16 128 128 128 255 
0.06939835 0.1895975 0.1772863 0 0 0 16 128 128 128 255 
0.06742597 0.1898011 0.1773397 0 0 0 16 128 128 128 255 
0.06545434 0.1900046 0.1773931 0 0 0 16 128 128 128 255 
0.06348345 0.1902081 0.1774465 0 0 0 16 128 128 128 255 
0.06151329 0.1904115 0.1774999 0 0 0 16 128 128 128 255 
0.05954389 0.1906147 0.1775532 0 0 0 16 128 128 128 255 
0.05757523 0.1908178 0.1776066 0 0 0 16 128 128 128 255 
0.05560731 0.1910208 0.1776598 0 0 0 16 128 128 128 255 
0.05364012 0.1912239 0.1777131 0 0 0 16 128 128 128 255 
0.05167367 0.1914269 0.1777664 0 0 0 16 128 128 128 255 
0.04970795 0.1916299 0.1778197 0 0 0 16 128 128 128 255 
0.04774296 0.1918329 0.177873 0 0 0 16 128 128 128 255 
0.04577874 0.1920355 0.1779261 0 0 0 16 128 128 128 255 
0.04381523 0.192238 0.1779793 0 0 0 16 128 128 128 255 
0.04185248 0.1924406 0.1780325 0 0 0 16 128 128 128 255 
0.03989044 0.1926433 0.1780857 0 0 0 16 128 128 128 255 
0.03792916 0.1928456 0.1781388 0 0 0 16 128 128 128 255 
0.0359686 0.1930481 0.1781919 0 0 0 16 128 128 128 255 
0.03400878 0.1932504 0.178245 0 0 0 16 128 128 128 255 
0.0320497 0.1934526 0.1782981 0 0 0 16 128 128 128 255 
0.03009137 0.1936545 0.1783511 0 0 0 16 128 128 128 255 
0.02813374 0.1938567 0.1784041 0 0 0 16 128 128 128 255 
0.02617685 0.1940587 0.1784571 0 0 0 16 128 128 128 255 
0.0242207 0.1942607 0.1785102 0 0 0 16 128 128 128 255 
0.02226529 0.1944625 0.1785631 0 0 0 16 128 128 128 255 
0.02031061 0.1946643 0.1786161 0 0 0 16 128 128 128 255 
0.01835665 0.194866 0.1786691 0 0 0 16 128 128 128 255 
0.01640342 0.1950678 0.178722 0 0 0 16 128 128 128 255 
0.01445096 0.1952689 0.1787748 0 0 0 16 128 128 128 255 
0.01249919 0.1954706 0.1788277 0 0 0 16 128 128 128 255 
0.01054817 0.1956719 0.1788805 0 0 0 16 128 128 128 255 
0.00859787 0.1958733 0.1789334 0 0 0 16 128 128 128 255 
0.006648311 0.1960743 0.1789861 0 0 0 16 128 128 128 255 
0.004699466 0.1962757 0.179039 0 0 0 16 128 128 128 255 
0.00275136 0.1964765 0.1790917 0 0 0 16 128 128 128 255 
0.0008040068 0.1966769 0.1791443 0 0 0 16 128 128 128 255 
-0.001142664 0.1968782 0.1791972 0 0 0 16 128 128 128 255 
-0.003088605 0.1970796 0.17925 0 0 0 16 128 128 128 255 
-0.005033801 0.1972803 0.1793026 0 0 0 16 128 128 128 255 
-0.006976526 0.1974286 0.1793416 0 0 0 16 128 128 128 255 
-0.008912573 0.197382 0.1793294 0 0 0 16 128 128 128 255 
-0.01084263 0.1971283 0.1792627 0 0 0 16 128 128 128 255 
-0.01276717 0.1966441 0.1791356 0 0 0 16 128 128 128 255 
-0.014687 0.1959128 0.1789436 0 0 0 16 128 128 128 255 
-0.0166026 0.194899 0.1786775 0 0 0 16 128 128 128 255 
-0.01851293 0.1934881 0.1783071 0 0 0 16 128 128 128 255 
-0.02041837 0.1915956 0.1778103 0 0 0 16 128 128 128 255 
-0.02231471 0.1888599 0.1770922 0 0 0 16 128 128 128 255 
-0.02418157 0.1838221 0.1757697 0 0 0 16 128 128 128 255 
-0.0259069 0.1683399 0.1717055 0 0 0 16 128 128 128 255 
-0.02776161 0.1583083 0.1690721 0 0 0 16 128 128 128 255 
-0.02851011 0.05048603 0.140768 0 0 0 16 128 128 128 255 
-0.03069768 0.04896113 0.1403677 0 0 0 16 128 128 128 255 
-0.03289122 0.04749362 0.1399824 0 0 0 16 128 128 128 255 
-0.03508937 0.04591721 0.1395686 0 0 0 16 128 128 128 255 
-0.03729253 0.0441894 0.139115 0 0 0 16 128 128 128 255 
-0.03950145 0.0422818 0.1386142 0 0 0 16 128 128 128 255 
-0.04171706 0.04013799 0.1380515 0 0 0 16 128 128 128 255 
-0.04394064 0.03772958 0.1374193 0 0 0 16 128 128 128 255 
-0.0461738 0.03500267 0.1367034 0 0 0 16 128 128 128 255 
-0.04841868 0.03186157 0.1358788 0 0 0 16 128 128 128 255 
-0.05067843 0.02816536 0.1349085 0 0 0 16 128 128 128 255 
-0.05295844 0.02362065 0.1337155 0 0 0 16 128 128 128 255 
-0.05526969 0.01758824 0.1321319 0 0 0 16 128 128 128 255 
-0.05769109 0.004047322 0.1285773 0 0 0 16 128 128 128 255 
0.08788446 0.1819145 0.173304 0 0 0 16 128 128 128 255 
0.08545477 0.1858441 0.1743427 0 0 0 16 128 128 128 255 
0.08332633 0.1873058 0.174729 0 0 0 16 128 128 128 255 
0.08128818 0.1880253 0.1749191 0 0 0 16 128 128 128 255 
0.07929572 0.1883624 0.1750082 0 0 0 16 128 128 128 255 
0.07731923 0.1885664 0.1750621 0 0 0 16 128 128 128 255 
0.07534348 0.1887703 0.175116 0 0 0 16 128 128 128 255 
0.07336847 0.1889742 0.1751699 0 0 0 16 128 128 128 255 
0.07139421 0.1891782 0.1752238 0 0 0 16 128 128 128 255 
0.06942073 0.1893815 0.1752776 0 0 0 16 128 128 128 255 
0.06744796 0.1895852 0.1753314 0 0 0 16 128 128 128 255 
0.06547592 0.1897889 0.1753852 0 0 0 16 128 128 128 255 
0.06350463 0.1899925 0.175439 0 0 0 16 128 128 128 255 
0.06153408 0.1901959 0.1754928 0 0 0 16 128 128 128 255 
0.05956426 0.1903994 0.1755465 0 0 0 16 128 128 128 255 
0.05759519 0.1906027 0.1756003 0 0 0 16 128 128 128 255 
0.05562687 0.1908058 0.175654 0 0 0 16 128 128 128 255 
0.05365929 0.191009 0.1757076 0 0 0 16 128 128 128 255 
0.05169246 0.1912118 0.1757612 0 0 0 16 128 128 128 255 
0.04972633 0.1914151 0.1758149 0 0 0 16 128 128 128 255 
0.04776097 0.1916177 0.1758685 0 0 0 16 128 128 128 255 
0.04579634 0.1918206 0.1759221 0 0 0 16 128 128 128 255 
0.04383245 0.1920233 0.1759757 0 0 0 16 128 128 128 255 
0.04186929 0.1922261 0.1760293 0 0 0 16 128 128 128 255 
0.03990687 0.1924287 0.1760828 0 0 0 16 128 128 128 255 
0.03794521 0.192631 0.1761363 0 0 0 16 128 128 128 255 
0.03598425 0.1928337 0.1761898 0 0 0 16 128 128 128 255 
0.03402405 0.1930359 0.1762433 0 0 0 16 128 128 128 255 
0.03206455 0.1932385 0.1762968 0 0 0 16 128 128 128 255 
0.03010581 0.1934407 0.1763503 0 0 0 16 128 128 128 255 
0.0281478 0.1936428 0.1764036 0 0 0 16 128 128 128 255 
0.02619054 0.1938448 0.176457 0 0 0 16 128 128 128 255 
0.02423399 0.194047 0.1765104 0 0 0 16 128 128 128 255 
0.02227818 0.1942489 0.1765638 0 0 0 16 128 128 128 255 
0.02032311 0.1944508 0.1766171 0 0 0 16 128 128 128 255 
0.01836878 0.1946522 0.1766704 0 0 0 16 128 128 128 255 
0.01641516 0.1948541 0.1767237 0 0 0 16 128 128 128 255 
0.01446229 0.1950555 0.176777 0 0 0 16 128 128 128 255 
0.01251015 0.195257 0.1768302 0 0 0 16 128 128 128 255 
0.01055873 0.1954587 0.1768835 0 0 0 16 128 128 128 255 
0.008608045 0.19566 0.1769367 0 0 0 16 128 128 128 255 
0.006658084 0.1958614 0.1769899 0 0 0 16 128 128 128 255 
0.004708865 0.1960624 0.177043 0 0 0 16 128 128 128 255 
0.002760391 0.196263 0.177096 0 0 0 16 128 128 128 255 
0.0008126095 0.1964645 0.1771493 0 0 0 16 128 128 128 255 
-0.001134449 0.1966659 0.1772025 0 0 0 16 128 128 128 255 
-0.003080747 0.1968665 0.1772555 0 0 0 16 128 128 128 255 
-0.005026293 0.1970663 0.1773083 0 0 0 16 128 128 128 255 
-0.006967296 0.1971513 0.1773308 0 0 0 16 128 128 128 255 
-0.008902135 0.1970506 0.1773042 0 0 0 16 128 128 128 255 
-0.01083134 0.1967481 0.1772242 0 0 0 16 128 128 128 255 
-0.0127553 0.1962187 0.1770843 0 0 0 16 128 128 128 255 
-0.01467461 0.1954378 0.1768779 0 0 0 16 128 128 128 255 
-0.01658871 0.1943271 0.1765843 0 0 0 16 128 128 128 255 
-0.01849802 0.1928253 0.1761873 0 0 0 16 128 128 128 255 
-0.02040138 0.1907743 0.1756452 0 0 0 16 128 128 128 255 
-0.02229303 0.1877119 0.1748358 0 0 0 16 128 128 128 255 
-0.02411986 0.180212 0.1728534 0 0 0 16 128 128 128 255 
-0.02579581 0.161074 0.167795 0 0 0 16 128 128 128 255 
-0.02774452 0.1570402 0.1667288 0 0 0 16 128 128 128 255 
-0.02850752 0.05026332 0.1385065 0 0 0 16 128 128 128 255 
-0.03069766 0.04895761 0.1381613 0 0 0 16 128 128 128 255 
-0.03289143 0.0475188 0.1377811 0 0 0 16 128 128 128 255 
-0.03508966 0.04596069 0.1373692 0 0 0 16 128 128 128 255 
-0.03729277 0.04423939 0.1369143 0 0 0 16 128 128 128 255 
-0.03950159 0.04232678 0.1364087 0 0 0 16 128 128 128 255 
-0.0417171 0.04017077 0.1358388 0 0 0 16 128 128 128 255 
-0.04394063 0.03775927 0.1352014 0 0 0 16 128 128 128 255 
-0.04617374 0.03502756 0.1344794 0 0 0 16 128 128 128 255 
-0.04841862 0.03187775 0.1336468 0 0 0 16 128 128 128 255 
-0.05067838 0.02817474 0.1326681 0 0 0 16 128 128 128 255 
-0.05295843 0.02362433 0.1314654 0 0 0 16 128 128 128 255 
-0.05526968 0.01758982 0.1298704 0 0 0 16 128 128 128 255 
-0.05769111 0.004047206 0.1262909 0 0 0 16 128 128 128 255 
0.08559355 0.1846693 0.1720716 0 0 0 16 128 128 128 255 
0.08340374 0.1866403 0.1725961 0 0 0 16 128 128 128 255 
0.08133245 0.1876387 0.1728618 0 0 0 16 128 128 128 255 
0.07932521 0.1881007 0.1729847 0 0 0 16 128 128 128 255 
0.07734322 0.18835 0.1730511 0 0 0 16 128 128 128 255 
0.07536706 0.1885541 0.1731054 0 0 0 16 128 128 128 255 
0.07339165 0.1887582 0.1731597 0 0 0 16 128 128 128 255 
0.07141699 0.1889622 0.1732139 0 0 0 16 128 128 128 255 
0.06944306 0.1891661 0.1732682 0 0 0 16 128 128 128 255 
0.0674699 0.1893698 0.1733224 0 0 0 16 128 128 128 255 
0.06549748 0.1895734 0.1733766 0 0 0 16 128 128 128 255 
0.0635258 0.1897769 0.1734307 0 0 0 16 128 128 128 255 
0.06155486 0.1899804 0.1734848 0 0 0 16 128 128 128 255 
0.05958465 0.190184 0.173539 0 0 0 16 128 128 128 255 
0.0576152 0.1903872 0.1735931 0 0 0 16 128 128 128 255 
0.05564648 0.1905904 0.1736472 0 0 0 16 128 128 128 255 
0.05367848 0.1907938 0.1737013 0 0 0 16 128 128 128 255 
0.05171124 0.190997 0.1737553 0 0 0 16 128 128 128 255 
0.04974474 0.1911999 0.1738093 0 0 0 16 128 128 128 255 
0.04777898 0.1914029 0.1738633 0 0 0 16 128 128 128 255 
0.04581398 0.1916055 0.1739172 0 0 0 16 128 128 128 255 
0.04384968 0.1918084 0.1739712 0 0 0 16 128 128 128 255 
0.04188612 0.1920114 0.1740252 0 0 0 16 128 128 128 255 
0.03992333 0.1922139 0.1740791 0 0 0 16 128 128 128 255 
0.03796121 0.192417 0.1741332 0 0 0 16 128 128 128 255 
0.03599988 0.1926194 0.174187 0 0 0 16 128 128 128 255 
0.03403929 0.1928217 0.1742408 0 0 0 16 128 128 128 255 
0.03207942 0.193024 0.1742947 0 0 0 16 128 128 128 255 
0.03012028 0.1932264 0.1743485 0 0 0 16 128 128 128 255 
0.02816188 0.1934288 0.1744024 0 0 0 16 128 128 128 255 
0.0262042 0.1936311 0.1744561 0 0 0 16 128 128 128 255 
0.02424729 0.1938329 0.1745098 0 0 0 16 128 128 128 255 
0.0222911 0.1940348 0.1745636 0 0 0 16 128 128 128 255 
0.02033563 0.1942368 0.1746173 0 0 0 16 128 128 128 255 
0.01838089 0.1944387 0.174671 0 0 0 16 128 128 128 255 
0.01642691 0.1946402 0.1747247 0 0 0 16 128 128 128 255 
0.01447364 0.194842 0.1747784 0 0 0 16 128 128 128 255 
0.01252111 0.1950435 0.1748319 0 0 0 16 128 128 128 255 
0.01056931 0.195245 0.1748856 0 0 0 16 128 128 128 255 
0.00861822 0.1954467 0.1749392 0 0 0 16 128 128 128 255 
0.006667879 0.195648 0.1749928 0 0 0 16 128 128 128 255 
0.004718287 0.1958488 0.1750462 0 0 0 16 128 128 128 255 
0.002769388 0.1960504 0.1750998 0 0 0 16 128 128 128 255 
0.0008212163 0.1962519 0.1751535 0 0 0 16 128 128 128 255 
-0.001126197 0.1964527 0.1752069 0 0 0 16 128 128 128 255 
-0.003072886 0.1966534 0.1752603 0 0 0 16 128 128 128 255 
-0.005017853 0.1968257 0.1753061 0 0 0 16 128 128 128 255 
-0.00695743 0.196855 0.1753139 0 0 0 16 128 128 128 255 
-0.008890927 0.1966947 0.1752713 0 0 0 16 128 128 128 255 
-0.01081926 0.1963415 0.1751772 0 0 0 16 128 128 128 255 
-0.01274212 0.1957462 0.1750188 0 0 0 16 128 128 128 255 
-0.01465967 0.1948653 0.1747844 0 0 0 16 128 128 128 255 
-0.01657273 0.1936695 0.1744661 0 0 0 16 128 128 128 255 
-0.01848137 0.1920848 0.1740444 0 0 0 16 128 128 128 255 
-0.02038088 0.1897835 0.173432 0 0 0 16 128 128 128 255 
-0.0222656 0.1862601 0.1724943 0 0 0 16 128 128 128 255 
-0.0240142 0.1740302 0.1692398 0 0 0 16 128 128 128 255 
-0.02573216 0.1569106 0.164684 0 0 0 16 128 128 128 255 
-0.0263203 0.05143481 0.1366152 0 0 0 16 128 128 128 255 
-0.02850774 0.050281 0.1363082 0 0 0 16 128 128 128 255 
-0.03069804 0.04899459 0.1359658 0 0 0 16 128 128 128 255 
-0.03289193 0.04757839 0.1355889 0 0 0 16 128 128 128 255 
-0.03509001 0.04601498 0.1351728 0 0 0 16 128 128 128 255 
-0.03729301 0.04428947 0.1347137 0 0 0 16 128 128 128 255 
-0.03950172 0.04237187 0.1342033 0 0 0 16 128 128 128 255 
-0.04171714 0.04020356 0.1336263 0 0 0 16 128 128 128 255 
-0.04394061 0.03778875 0.1329837 0 0 0 16 128 128 128 255 
-0.04617369 0.03505255 0.1322555 0 0 0 16 128 128 128 255 
-0.04841857 0.03189254 0.1314146 0 0 0 16 128 128 128 255 
-0.05067834 0.02818413 0.1304277 0 0 0 16 128 128 128 255 
-0.05296212 0.02317412 0.1290945 0 0 0 16 128 128 128 255 
-0.05527411 0.01714781 0.1274908 0 0 0 16 128 128 128 255 
-0.05769112 0.00404699 0.1240044 0 0 0 16 128 128 128 255 
0.08581422 0.182801 0.1696105 0 0 0 16 128 128 128 255 
0.083506 0.185761 0.1704036 0 0 0 16 128 128 128 255 
0.08139486 0.1870935 0.1707606 0 0 0 16 128 128 128 255 
0.07936036 0.1877886 0.1709468 0 0 0 16 128 128 128 255 
0.07736716 0.188134 0.1710393 0 0 0 16 128 128 128 255 
0.07539061 0.1883381 0.171094 0 0 0 16 128 128 128 255 
0.07341482 0.1885421 0.1711486 0 0 0 16 128 128 128 255 
0.07143977 0.188746 0.1712033 0 0 0 16 128 128 128 255 
0.06946546 0.18895 0.1712579 0 0 0 16 128 128 128 255 
0.06749189 0.1891538 0.1713125 0 0 0 16 128 128 128 255 
0.06551908 0.1893574 0.171367 0 0 0 16 128 128 128 255 
0.063547 0.1895611 0.1714216 0 0 0 16 128 128 128 255 
0.06157563 0.189765 0.1714762 0 0 0 16 128 128 128 255 
0.05960504 0.1899684 0.1715307 0 0 0 16 128 128 128 255 
0.05763518 0.1901719 0.1715852 0 0 0 16 128 128 128 255 
0.05566605 0.1903754 0.1716397 0 0 0 16 128 128 128 255 
0.05369772 0.1905782 0.171694 0 0 0 16 128 128 128 255 
0.05173006 0.1907815 0.1717485 0 0 0 16 128 128 128 255 
0.04976316 0.1909847 0.1718029 0 0 0 16 128 128 128 255 
0.04779701 0.1911877 0.1718573 0 0 0 16 128 128 128 255 
0.04583158 0.1913908 0.1719117 0 0 0 16 128 128 128 255 
0.04386687 0.1915942 0.1719662 0 0 0 16 128 128 128 255 
0.04190294 0.1917968 0.1720205 0 0 0 16 128 128 128 255 
0.03993974 0.1919996 0.1720748 0 0 0 16 128 128 128 255 
0.03797727 0.1922022 0.172129 0 0 0 16 128 128 128 255 
0.03601553 0.1924049 0.1721833 0 0 0 16 128 128 128 255 
0.03405454 0.1926074 0.1722376 0 0 0 16 128 128 128 255 
0.03209426 0.19281 0.1722918 0 0 0 16 128 128 128 255 
0.03013474 0.1930124 0.1723461 0 0 0 16 128 128 128 255 
0.02817599 0.1932141 0.1724001 0 0 0 16 128 128 128 255 
0.02621792 0.1934166 0.1724543 0 0 0 16 128 128 128 255 
0.02426059 0.1936188 0.1725085 0 0 0 16 128 128 128 255 
0.022304 0.193821 0.1725627 0 0 0 16 128 128 128 255 
0.02034815 0.1940228 0.1726167 0 0 0 16 128 128 128 255 
0.01839304 0.1942246 0.1726708 0 0 0 16 128 128 128 255 
0.01643864 0.1944266 0.1727249 0 0 0 16 128 128 128 255 
0.014485 0.1946282 0.1727789 0 0 0 16 128 128 128 255 
0.01253207 0.1948299 0.1728329 0 0 0 16 128 128 128 255 
0.01057987 0.1950317 0.1728869 0 0 0 16 128 128 128 255 
0.008628406 0.1952331 0.1729409 0 0 0 16 128 128 128 255 
0.006677689 0.1954343 0.1729948 0 0 0 16 128 128 128 255 
0.004727676 0.1956359 0.1730488 0 0 0 16 128 128 128 255 
0.002778383 0.1958377 0.1731029 0 0 0 16 128 128 128 255 
0.0008298639 0.1960384 0.1731566 0 0 0 16 128 128 128 255 
-0.001117955 0.1962396 0.1732105 0 0 0 16 128 128 128 255 
-0.003065058 0.1964411 0.1732645 0 0 0 16 128 128 128 255 
-0.005009009 0.1965736 0.1733 0 0 0 16 128 128 128 255 
-0.006946576 0.1965289 0.173288 0 0 0 16 128 128 128 255 
-0.008878455 0.1962987 0.1732263 0 0 0 16 128 128 128 255 
-0.01080485 0.1958562 0.1731077 0 0 0 16 128 128 128 255 
-0.01272612 0.1951726 0.1729246 0 0 0 16 128 128 128 255 
-0.01464279 0.1942184 0.1726689 0 0 0 16 128 128 128 255 
-0.0165549 0.1929354 0.1723252 0 0 0 16 128 128 128 255 
-0.01845967 0.1911204 0.1718389 0 0 0 16 128 128 128 255 
-0.02035597 0.1885799 0.1711582 0 0 0 16 128 128 128 255 
-0.02222417 0.1840676 0.1699493 0 0 0 16 128 128 128 255 
-0.02384395 0.1640705 0.1645916 0 0 0 16 128 128 128 255 
-0.02571987 0.1561056 0.1624577 0 0 0 16 128 128 128 255 
-0.02632086 0.05147579 0.1344253 0 0 0 16 128 128 128 255 
-0.02850842 0.05033839 0.1341205 0 0 0 16 128 128 128 255 
-0.03069861 0.04905128 0.1337757 0 0 0 16 128 128 128 255 
-0.03289237 0.04763147 0.1333953 0 0 0 16 128 128 128 255 
-0.03509036 0.04606916 0.1329767 0 0 0 16 128 128 128 255 
-0.03729324 0.04433956 0.1325133 0 0 0 16 128 128 128 255 
-0.03950183 0.04240775 0.1319957 0 0 0 16 128 128 128 255 
-0.04171718 0.04023615 0.1314139 0 0 0 16 128 128 128 255 
-0.0439406 0.03781844 0.1307661 0 0 0 16 128 128 128 255 
-0.04617363 0.03507743 0.1300317 0 0 0 16 128 128 128 255 
-0.0484193 0.03173392 0.1291359 0 0 0 16 128 128 128 255 
-0.05068094 0.02777671 0.1280757 0 0 0 16 128 128 128 255 
-0.05296213 0.023174 0.1268425 0 0 0 16 128 128 128 255 
-0.05527412 0.01714769 0.1252279 0 0 0 16 128 128 128 255 
-0.05772302 0.00133877 0.1209924 0 0 0 16 128 128 128 255 
-0.06036896 -0.02478116 0.1139943 0 0 0 16 128 128 128 255 
-0.06270726 -0.02477196 0.1139968 0 0 0 16 128 128 128 255 
-0.06504577 -0.02477686 0.1139955 0 0 0 16 128 128 128 255 
-0.06738429 -0.02478176 0.1139941 0 0 0 16 128 128 128 255 
0.08365158 0.1845095 0.1681075 0 0 0 16 128 128 128 255 
0.08147843 0.1863636 0.1686075 0 0 0 16 128 128 128 255 
0.07940938 0.1873536 0.1688746 0 0 0 16 128 128 128 255 
0.07739982 0.1878394 0.1690056 0 0 0 16 128 128 128 255 
0.07541421 0.1881218 0.1690817 0 0 0 16 128 128 128 255 
0.07343802 0.1883258 0.1691367 0 0 0 16 128 128 128 255 
0.07146255 0.18853 0.1691918 0 0 0 16 128 128 128 255 
0.06948783 0.1887342 0.1692469 0 0 0 16 128 128 128 255 
0.06751387 0.1889379 0.1693018 0 0 0 16 128 128 128 255 
0.06554065 0.1891418 0.1693568 0 0 0 16 128 128 128 255 
0.06356816 0.1893456 0.1694118 0 0 0 16 128 128 128 255 
0.06159645 0.1895491 0.1694666 0 0 0 16 128 128 128 255 
0.05962547 0.1897525 0.1695215 0 0 0 16 128 128 128 255 
0.05765519 0.1899563 0.1695764 0 0 0 16 128 128 128 255 
0.05568567 0.1901598 0.1696313 0 0 0 16 128 128 128 255 
0.05371692 0.1903629 0.1696861 0 0 0 16 128 128 128 255 
0.05174885 0.1905666 0.169741 0 0 0 16 128 128 128 255 
0.04978154 0.19077 0.1697959 0 0 0 16 128 128 128 255 
0.04781499 0.1909732 0.1698507 0 0 0 16 128 128 128 255 
0.04584919 0.1911761 0.1699054 0 0 0 16 128 128 128 255 
0.04388413 0.1913789 0.1699601 0 0 0 16 128 128 128 255 
0.04191979 0.1915819 0.1700148 0 0 0 16 128 128 128 255 
0.03995618 0.1917848 0.1700695 0 0 0 16 128 128 128 255 
0.0379933 0.1919878 0.1701243 0 0 0 16 128 128 128 255 
0.03603118 0.1921904 0.1701789 0 0 0 16 128 128 128 255 
0.03406978 0.1923932 0.1702336 0 0 0 16 128 128 128 255 
0.03210918 0.192595 0.170288 0 0 0 16 128 128 128 255 
0.03014924 0.1927977 0.1703427 0 0 0 16 128 128 128 255 
0.02819006 0.1930003 0.1703973 0 0 0 16 128 128 128 255 
0.0262316 0.1932026 0.1704518 0 0 0 16 128 128 128 255 
0.0242739 0.1934046 0.1705063 0 0 0 16 128 128 128 255 
0.02231694 0.1936065 0.1705608 0 0 0 16 128 128 128 255 
0.02036068 0.1938088 0.1706154 0 0 0 16 128 128 128 255 
0.01840517 0.1940108 0.1706698 0 0 0 16 128 128 128 255 
0.01645039 0.1942128 0.1707243 0 0 0 16 128 128 128 255 
0.01449635 0.1944144 0.1707786 0 0 0 16 128 128 128 255 
0.01254303 0.1946163 0.1708331 0 0 0 16 128 128 128 255 
0.01059044 0.1948181 0.1708875 0 0 0 16 128 128 128 255 
0.008638588 0.1950197 0.1709419 0 0 0 16 128 128 128 255 
0.006687472 0.1952212 0.1709962 0 0 0 16 128 128 128 255 
0.004737061 0.1954231 0.1710507 0 0 0 16 128 128 128 255 
0.002787428 0.1956238 0.1711048 0 0 0 16 128 128 128 255 
0.0008384847 0.1958255 0.1711592 0 0 0 16 128 128 128 255 
-0.001109732 0.1960271 0.1712135 0 0 0 16 128 128 128 255 
-0.003056274 0.196203 0.171261 0 0 0 16 128 128 128 255 
-0.004997841 0.1962555 0.1712751 0 0 0 16 128 128 128 255 
-0.00693344 0.1961345 0.1712425 0 0 0 16 128 128 128 255 
-0.008863647 0.1958287 0.17116 0 0 0 16 128 128 128 255 
-0.01078888 0.1953183 0.1710223 0 0 0 16 128 128 128 255 
-0.01270896 0.1945575 0.1708171 0 0 0 16 128 128 128 255 
-0.01462358 0.1934825 0.1705271 0 0 0 16 128 128 128 255 
-0.01653253 0.1920147 0.1701312 0 0 0 16 128 128 128 255 
-0.01843516 0.1900307 0.1695961 0 0 0 16 128 128 128 255 
-0.02032378 0.1870244 0.1687852 0 0 0 16 128 128 128 255 
-0.02211792 0.1784448 0.166471 0 0 0 16 128 128 128 255 
-0.02369758 0.1555076 0.1602843 0 0 0 16 128 128 128 255 
-0.02413709 0.05259148 0.1325254 0 0 0 16 128 128 128 255 
-0.02632173 0.05153908 0.1322415 0 0 0 16 128 128 128 255 
-0.02850916 0.05040037 0.1319343 0 0 0 16 128 128 128 255 
-0.03069918 0.04910786 0.1315857 0 0 0 16 128 128 128 255 
-0.03289278 0.04768016 0.1312006 0 0 0 16 128 128 128 255 
-0.03509064 0.04611085 0.1307773 0 0 0 16 128 128 128 255 
-0.03729348 0.04438944 0.130313 0 0 0 16 128 128 128 255 
-0.03950194 0.04244344 0.1297881 0 0 0 16 128 128 128 255 
-0.041717 0.04000923 0.1291315 0 0 0 16 128 128 128 255 
-0.04394078 0.03764272 0.1284932 0 0 0 16 128 128 128 255 
-0.04617457 0.03474321 0.1277111 0 0 0 16 128 128 128 255 
-0.04841932 0.0317339 0.1268995 0 0 0 16 128 128 128 255 
-0.05068096 0.0277765 0.125832 0 0 0 16 128 128 128 255 
-0.05296215 0.02317399 0.1245906 0 0 0 16 128 128 128 255 
-0.055347 0.009838066 0.1209936 0 0 0 16 128 128 128 255 
-0.05766637 0.006151961 0.1199993 0 0 0 16 128 128 128 255 
-0.06025111 -0.01609947 0.1139976 0 0 0 16 128 128 128 255 
-0.06257389 -0.01610047 0.1139973 0 0 0 16 128 128 128 255 
-0.06489671 -0.01610277 0.1139966 0 0 0 16 128 128 128 255 
-0.06721953 -0.01610486 0.1139961 0 0 0 16 128 128 128 255 
-0.06954236 -0.01610686 0.1139955 0 0 0 16 128 128 128 255 
0.08389598 0.1824084 0.1655761 0 0 0 16 128 128 128 255 
0.08159196 0.1853722 0.1663809 0 0 0 16 128 128 128 255 
0.0794796 0.1867304 0.1667497 0 0 0 16 128 128 128 255 
0.07743695 0.1875045 0.1669599 0 0 0 16 128 128 128 255 
0.07544091 0.1878769 0.167061 0 0 0 16 128 128 128 255 
0.07346119 0.1881098 0.1671242 0 0 0 16 128 128 128 255 
0.07148534 0.1883139 0.1671796 0 0 0 16 128 128 128 255 
0.06951024 0.1885179 0.167235 0 0 0 16 128 128 128 255 
0.06753591 0.1887215 0.1672902 0 0 0 16 128 128 128 255 
0.06556228 0.1889256 0.1673457 0 0 0 16 128 128 128 255 
0.06358939 0.1891296 0.167401 0 0 0 16 128 128 128 255 
0.06161723 0.1893335 0.1674564 0 0 0 16 128 128 128 255 
0.05964586 0.189537 0.1675116 0 0 0 16 128 128 128 255 
0.05767517 0.189741 0.167567 0 0 0 16 128 128 128 255 
0.05570523 0.1899448 0.1676223 0 0 0 16 128 128 128 255 
0.05373609 0.1901479 0.1676775 0 0 0 16 128 128 128 255 
0.05176766 0.1903514 0.1677327 0 0 0 16 128 128 128 255 
0.04979999 0.1905545 0.1677878 0 0 0 16 128 128 128 255 
0.04783304 0.1907577 0.167843 0 0 0 16 128 128 128 255 
0.04586683 0.190961 0.1678982 0 0 0 16 128 128 128 255 
0.04390134 0.1911642 0.1679534 0 0 0 16 128 128 128 255 
0.04193661 0.1913673 0.1680085 0 0 0 16 128 128 128 255 
0.03997261 0.1915702 0.1680636 0 0 0 16 128 128 128 255 
0.03800937 0.1917728 0.1681186 0 0 0 16 128 128 128 255 
0.03604689 0.1919751 0.1681735 0 0 0 16 128 128 128 255 
0.03408509 0.1921781 0.1682286 0 0 0 16 128 128 128 255 
0.03212403 0.1923809 0.1682836 0 0 0 16 128 128 128 255 
0.03016371 0.1925836 0.1683387 0 0 0 16 128 128 128 255 
0.02820415 0.1927858 0.1683936 0 0 0 16 128 128 128 255 
0.02624532 0.192988 0.1684484 0 0 0 16 128 128 128 255 
0.02428722 0.1931903 0.1685034 0 0 0 16 128 128 128 255 
0.02232985 0.1933927 0.1685583 0 0 0 16 128 128 128 255 
0.02037323 0.1935945 0.1686131 0 0 0 16 128 128 128 255 
0.01841731 0.1937969 0.1686681 0 0 0 16 128 128 128 255 
0.01646213 0.193999 0.1687229 0 0 0 16 128 128 128 255 
0.0145077 0.1942008 0.1687777 0 0 0 16 128 128 128 255 
0.01255399 0.1944026 0.1688325 0 0 0 16 128 128 128 255 
0.01060101 0.1946047 0.1688873 0 0 0 16 128 128 128 255 
0.008648782 0.1948061 0.168942 0 0 0 16 128 128 128 255 
0.006697253 0.1950082 0.1689969 0 0 0 16 128 128 128 255 
0.004746506 0.195209 0.1690514 0 0 0 16 128 128 128 255 
0.00279643 0.195411 0.1691063 0 0 0 16 128 128 128 255 
0.0008471104 0.1956124 0.1691609 0 0 0 16 128 128 128 255 
-0.001101464 0.1958134 0.1692155 0 0 0 16 128 128 128 255 
-0.003046515 0.1959385 0.1692495 0 0 0 16 128 128 128 255 
-0.004985753 0.1959111 0.169242 0 0 0 16 128 128 128 255 
-0.006919479 0.1957153 0.1691888 0 0 0 16 128 128 128 255 
-0.00884755 0.1953177 0.1690809 0 0 0 16 128 128 128 255 
-0.01077031 0.1946931 0.1689112 0 0 0 16 128 128 128 255 
-0.0126881 0.1938101 0.1686715 0 0 0 16 128 128 128 255 
-0.0146008 0.1926097 0.1683455 0 0 0 16 128 128 128 255 
-0.01650746 0.1909832 0.1679039 0 0 0 16 128 128 128 255 
-0.01840413 0.1886517 0.1672708 0 0 0 16 128 128 128 255 
-0.02027777 0.1848015 0.1662253 0 0 0 16 128 128 128 255 
-0.02181908 0.1626314 0.1602055 0 0 0 16 128 128 128 255 
-0.02368166 0.1545756 0.1580181 0 0 0 16 128 128 128 255 
-0.02413829 0.05266897 0.1303476 0 0 0 16 128 128 128 255 
-0.0263226 0.05160236 0.130058 0 0 0 16 128 128 128 255 
-0.0285099 0.05046216 0.1297484 0 0 0 16 128 128 128 255 
-0.03069978 0.04916655 0.1293965 0 0 0 16 128 128 128 255 
-0.03289172 0.04754754 0.1289569 0 0 0 16 128 128 128 255 
-0.03508937 0.04590613 0.1285112 0 0 0 16 128 128 128 255 
-0.03729292 0.04426033 0.1280643 0 0 0 16 128 128 128 255 
-0.03950129 0.04219402 0.1275032 0 0 0 16 128 128 128 255 
-0.04171701 0.04000921 0.12691 0 0 0 16 128 128 128 255 
-0.04394079 0.03764271 0.1262674 0 0 0 16 128 128 128 255 
-0.04617458 0.0347432 0.1254801 0 0 0 16 128 128 128 255 
-0.04841933 0.03173389 0.124663 0 0 0 16 128 128 128 255 
-0.05074172 0.01822487 0.1209949 0 0 0 16 128 128 128 255 
-0.05300256 0.01822506 0.1209949 0 0 0 16 128 128 128 255 
-0.05527421 0.01714136 0.1207006 0 0 0 16 128 128 128 255 
-0.05766638 0.006152145 0.1177167 0 0 0 16 128 128 128 255 
-0.06013517 -0.007559474 0.1139936 0 0 0 16 128 128 128 255 
-0.06244251 -0.007557673 0.1139941 0 0 0 16 128 128 128 255 
-0.06474984 -0.007555772 0.1139946 0 0 0 16 128 128 128 255 
-0.06705717 -0.007553971 0.1139951 0 0 0 16 128 128 128 255 
-0.06936449 -0.007552171 0.1139956 0 0 0 16 128 128 128 255 
-0.07167181 -0.00755057 0.113996 0 0 0 16 128 128 128 255 
0.08176822 0.183833 0.1640009 0 0 0 16 128 128 128 255 
0.07957791 0.1858583 0.1645544 0 0 0 16 128 128 128 255 
0.07749967 0.186939 0.1648499 0 0 0 16 128 128 128 255 
0.07547755 0.187541 0.1650144 0 0 0 16 128 128 128 255 
0.07348443 0.187893 0.1651106 0 0 0 16 128 128 128 255 
0.07150815 0.1880974 0.1651665 0 0 0 16 128 128 128 255 
0.06953263 0.1883017 0.1652223 0 0 0 16 128 128 128 255 
0.06755792 0.1885055 0.165278 0 0 0 16 128 128 128 255 
0.06558386 0.1887098 0.1653338 0 0 0 16 128 128 128 255 
0.06361055 0.1889141 0.1653896 0 0 0 16 128 128 128 255 
0.06163801 0.189118 0.1654454 0 0 0 16 128 128 128 255 
0.05966623 0.1893217 0.165501 0 0 0 16 128 128 128 255 
0.05769518 0.1895253 0.1655567 0 0 0 16 128 128 128 255 
0.05572489 0.1897288 0.1656123 0 0 0 16 128 128 128 255 
0.05375533 0.1899323 0.1656679 0 0 0 16 128 128 128 255 
0.0517865 0.1901359 0.1657235 0 0 0 16 128 128 128 255 
0.04981841 0.1903393 0.1657791 0 0 0 16 128 128 128 255 
0.04785104 0.1905429 0.1658347 0 0 0 16 128 128 128 255 
0.04588444 0.1907462 0.1658903 0 0 0 16 128 128 128 255 
0.04391858 0.1909492 0.1659458 0 0 0 16 128 128 128 255 
0.04195349 0.1911518 0.1660012 0 0 0 16 128 128 128 255 
0.03998912 0.1913546 0.1660566 0 0 0 16 128 128 128 255 
0.03802545 0.1915578 0.1661121 0 0 0 16 128 128 128 255 
0.03606253 0.1917608 0.1661676 0 0 0 16 128 128 128 255 
0.03410035 0.1919637 0.166223 0 0 0 16 128 128 128 255 
0.03213893 0.1921661 0.1662783 0 0 0 16 128 128 128 255 
0.03017823 0.1923686 0.1663337 0 0 0 16 128 128 128 255 
0.02821828 0.1925709 0.166389 0 0 0 16 128 128 128 255 
0.02625903 0.1927736 0.1664443 0 0 0 16 128 128 128 255 
0.02430052 0.1929763 0.1664997 0 0 0 16 128 128 128 255 
0.02234278 0.1931782 0.1665549 0 0 0 16 128 128 128 255 
0.02038575 0.1933805 0.1666102 0 0 0 16 128 128 128 255 
0.01842944 0.193583 0.1666655 0 0 0 16 128 128 128 255 
0.0164739 0.1937847 0.1667207 0 0 0 16 128 128 128 255 
0.01451906 0.1939869 0.1667759 0 0 0 16 128 128 128 255 
0.01256495 0.1941891 0.1668312 0 0 0 16 128 128 128 255 
0.0106116 0.1943907 0.1668862 0 0 0 16 128 128 128 255 
0.008658948 0.194593 0.1669415 0 0 0 16 128 128 128 255 
0.006707081 0.1947941 0.1669965 0 0 0 16 128 128 128 255 
0.004755891 0.1949962 0.1670517 0 0 0 16 128 128 128 255 
0.002805461 0.1951974 0.1671067 0 0 0 16 128 128 128 255 
0.0008557431 0.1953992 0.1671619 0 0 0 16 128 128 128 255 
-0.001091728 0.1955617 0.1672063 0 0 0 16 128 128 128 255 
-0.003034007 0.1955996 0.1672166 0 0 0 16 128 128 128 255 
-0.00497057 0.1954787 0.1671835 0 0 0 16 128 128 128 255 
-0.006901934 0.1951886 0.1671043 0 0 0 16 128 128 128 255 
-0.008828233 0.1947048 0.166972 0 0 0 16 128 128 128 255 
-0.01074923 0.1939838 0.1667749 0 0 0 16 128 128 128 255 
-0.01266526 0.1929916 0.1665037 0 0 0 16 128 128 128 255 
-0.01457433 0.1915957 0.1661222 0 0 0 16 128 128 128 255 
-0.01647659 0.1897128 0.1656075 0 0 0 16 128 128 128 255 
-0.01836421 0.1868775 0.1648325 0 0 0 16 128 128 128 255 
-0.02018 0.1800783 0.162974 0 0 0 16 128 128 128 255 
-0.02165788 0.1541013 0.1558737 0 0 0 16 128 128 128 255 
-0.02195298 0.05345166 0.1283628 0 0 0 16 128 128 128 255 
-0.02413739 0.05260915 0.1281326 0 0 0 16 128 128 128 255 
-0.02632075 0.05146475 0.1278197 0 0 0 16 128 128 128 255 
-0.0285075 0.05025554 0.1274892 0 0 0 16 128 128 128 255 
-0.03069858 0.04904413 0.1271581 0 0 0 16 128 128 128 255 
-0.03289173 0.04754733 0.1267489 0 0 0 16 128 128 128 255 
-0.03508938 0.04590602 0.1263003 0 0 0 16 128 128 128 255 
-0.03729293 0.04426021 0.1258504 0 0 0 16 128 128 128 255 
-0.0395013 0.0421939 0.1252856 0 0 0 16 128 128 128 255 
-0.04171702 0.040009 0.1246884 0 0 0 16 128 128 128 255 
-0.0439408 0.03764259 0.1240416 0 0 0 16 128 128 128 255 
-0.04619727 0.02650207 0.1209965 0 0 0 16 128 128 128 255 
-0.04844319 0.02649956 0.1209958 0 0 0 16 128 128 128 255 
-0.05068909 0.02650116 0.1209962 0 0 0 16 128 128 128 255 
-0.05296043 0.02338706 0.120145 0 0 0 16 128 128 128 255 
-0.05527422 0.01714144 0.1184379 0 0 0 16 128 128 128 255 
-0.0576664 0.006152129 0.1154341 0 0 0 16 128 128 128 255 
-0.06002066 0.0008755213 0.1139918 0 0 0 16 128 128 128 255 
-0.0623128 0.0008759214 0.113992 0 0 0 16 128 128 128 255 
-0.06460495 0.0008763215 0.113992 0 0 0 16 128 128 128 255 
-0.06689706 0.0008778216 0.1139924 0 0 0 16 128 128 128 255 
-0.06918918 0.0008794217 0.1139929 0 0 0 16 128 128 128 255 
-0.07148128 0.0008811218 0.1139933 0 0 0 16 128 128 128 255 
0.08213352 0.180643 0.1611612 0 0 0 16 128 128 128 255 
0.07972332 0.1845681 0.1622411 0 0 0 16 128 128 128 255 
0.0775888 0.1861352 0.1626723 0 0 0 16 128 128 128 255 
0.07553022 0.1870582 0.1629262 0 0 0 16 128 128 128 255 
0.07352063 0.1875555 0.163063 0 0 0 16 128 128 128 255 
0.07153095 0.1878813 0.1631527 0 0 0 16 128 128 128 255 
0.06955501 0.1880859 0.1632089 0 0 0 16 128 128 128 255 
0.06757985 0.18829 0.1632651 0 0 0 16 128 128 128 255 
0.06560543 0.1884941 0.1633212 0 0 0 16 128 128 128 255 
0.06363177 0.1886981 0.1633773 0 0 0 16 128 128 128 255 
0.06165884 0.188902 0.1634334 0 0 0 16 128 128 128 255 
0.05968667 0.1891056 0.1634894 0 0 0 16 128 128 128 255 
